# .PCD v0.7 - Point Cloud Data file format
VERSION 0.7
FIELDS x y z
SIZE 4 4 4
TYPE F F F
COUNT 1 1 1
WIDTH 170
HEIGHT 1
VIEWPOINT 0 0 0 1 0 0 0
POINTS 170
DATA ascii
0.75628227 0.87582749 0.2152773
0.55934167 0.41662458 0.040008433
0.73551732 0.84381759 0.83117861
0.84706461 0.70388514 0.82937014
0.76785511 0.45698002 0.97650415
0.81292772 0.5150727 0.91740829
0.88372797 0.73163301 0.78071058
0.056596901 0.87329566 0.90996975
0.37935761 0.17684467 0.36762536
0.26904371 0.41695076 0.79291415
0.52584338 0.0012357159 0.66949052
0.23073913 0.1611864 0.47404647
0.7057814 0.53117019 0.7327314
0.52889794 0.93831587 0.22676918
0.50227904 0.4435578 0.322745
0.14054216 0.55293947 0.48693544
0.87104869 0.53773487 0.62189788
0.14884864 0.5580318 0.94919169
0.3197155 0.93906939 0.79012495
0.54149902 0.34527233 0.026140591
0.28731528 0.55286765 0.27585593
0.12128921 0.82291836 0.64908403
0.33035108 0.90313631 0.5464133
0.0088070044 0.3575905 0.39228773
0.40277678 0.28363201 0.23139738
0.67820668 0.97299492 0.78876662
0.61882836 0.91185308 0.77280027
0.32271999 0.38511142 0.11336219
0.85047275 0.45115554 0.2208897
0.97929782 0.36886084 0.31456679
0.6209473 0.84917814 0.57532787
0.81476951 0.85370779 0.78189516
0.20316584 0.58211237 0.558227
0.6853314 0.40339506 0.84651303
0.32015979 0.4091509 0.73919725
0.69711626 0.68776006 0.26406431
0.048303813 0.83862185 0.65945476
0.66304135 0.46171501 0.73810172
0.21635994 0.078976192 0.89056176
0.6928274 0.1425595 0.49978474
0.99872327 0.35199937 0.46648854
0.41678846 0.77836329 0.12510045
0.085475989 0.40634164 0.2582812
0.81094545 0.14979909 0.51019681
0.81548232 0.11374064 0.73842227
0.25141597 0.023015473 0.86416018
0.89148301 0.20306168 0.011155879
0.17617291 0.70640534 0.047987614
0.11440268 0.9761346 0.56995493
0.1747002 0.97838914 0.26642007
0.71525043 0.86463594 0.01789538
0.41942644 0.94634497 0.83008707
0.52330083 0.42601117 0.48341596
0.011102612 0.9257158 0.34860325
0.44406995 0.12681311 0.33024332
0.13072327 0.00059187319 0.72914767
0.94299364 0.96734637 0.086332917
0.33122924 0.010276568 0.12199119
0.98030788 0.149575 0.32012385
0.68076956 0.78889048 0.10023271
0.72938329 0.39358824 0.38933134
0.3712351 0.043265834 0.03843553
0.65397632 0.98635572 0.46542469
0.68552113 0.17767929 0.28072479
0.96664333 0.82282966 0.16326618
0.51054764 0.19494604 0.66813058
0.7812404 0.3665216 0.46171528
0.15433703 0.97482759 0.64170974
0.82336617 0.68581742 0.90308398
0.92393535 0.3932347 0.34190986
0.97911471 0.52661771 0.49644125
0.62912476 0.16492051 0.58380461
0.84357458 0.8517127 0.79152542
0.70434028 0.602548 0.1376152
0.85222173 0.73191994 0.89096594
0.40493268 2.4566583e-05 0.62892234
0.89813453 0.77281088 0.5973506
0.093815416 0.12389028 0.85183251
0.47385898 0.26350605 0.44071141
0.7788536 0.87406808 0.4578484
0.51564288 0.90776891 0.077009618
0.91073561 0.2616255 0.45720032
0.7813412 0.89796072 0.30127987
0.74822158 0.3879315 0.49674436
0.77474099 0.92429638 0.15967287
0.34016886 0.053037629 0.7704404
0.079586096 0.24096386 0.12353014
0.86391556 0.31328949 0.27237692
0.54086709 0.55228555 0.2992655
0.34988931 0.35707748 0.30026969
0.61863708 0.13359976 0.12765308
0.29514661 0.30040935 0.29279029
0.82423884 0.3224183 0.60804081
0.84734786 0.39651462 0.1288961
0.66644812 0.069136135 0.77149451
0.62322986 0.63349956 0.39276767
0.96645623 0.76392543 0.24241096
0.41143632 0.61293381 0.83750063
0.86356688 0.56497931 0.696374
0.24792233 0.20445856 0.99290246
1.888218 1.1459438 1.748017
1.9633602 1.9093022 1.186846
1.4635704 1.4193791 1.2745597
1.5345235 1.2344949 1.4138857
1.9929997 1.9518031 1.272929
1.1578646 1.2346834 1.9245968
1.9942626 1.2587681 1.3001025
1.0435454 1.9919492 1.2247307
1.5445206 1.9209352 1.5166284
1.6146497 1.4430989 1.1613116
1.8966531 1.5025418 1.3844025
1.1162819 1.4570543 1.8812799
1.5214674 1.4040394 1.5408175
1.6601886 1.4727384 1.9837117
1.2812903 1.5351534 1.6407688
1.4237738 1.5744141 1.7001228
1.6039383 1.3480594 1.2440349
1.3644179 1.2761108 1.8969755
1.1500643 1.7612705 1.846517
1.4450405 1.0266128 1.3058434
1.7554663 1.2500439 1.9491814
1.1515937 1.5580189 1.7449458
1.5934377 1.9973701 1.8752954
1.4233544 1.5967898 1.0584699
1.0344715 1.767594 1.2884181
1.649488 1.200385 1.4514139
1.7117344 1.0023874 1.5748893
1.8239071 1.1418536 1.5970259
1.2715385 1.9715936 1.423968
1.9793957 1.0529439 1.4245996
1.5730281 1.2169033 1.2134939
1.1778282 1.5205563 1.2382374
1.7856493 1.4265631 1.3369663
1.7749094 1.9190241 1.4258623
1.000594 1.441596 1.0162449
1.7464498 1.9369459 1.0803317
1.5861167 1.3254716 1.737232
1.9870919 1.8496761 1.8535155
1.2322479 1.0796238 1.3758488
1.9888535 1.9724741 1.2862158
1.0394118 1.1494824 1.1227472
1.3363457 1.3291326 1.6303661
1.1956457 1.7371163 1.2915796
1.5779675 1.7977471 1.7839665
1.6870246 1.636328 1.5932206
1.6706073 1.5234616 1.2117507
1.4022256 1.4785186 1.5276889
1.5923269 1.3234735 1.3661132
1.002761 1.8172977 1.0526559
1.1162875 1.4564934 1.4761649
1.778549 1.4818265 1.3303437
1.5733501 1.1848752 1.5471495
1.67788 1.487453 1.4189239
1.9591603 1.9190024 1.5538027
1.4158233 1.2751164 1.7705166
1.9182465 1.9686259 1.7625896
1.3598919 1.462108 1.9972831
1.3460931 1.5961039 1.94085
1.5725832 1.3921312 1.0387187
1.3101389 1.8642832 1.5674223
1.2608528 1.159777 1.5352064
1.6579938 1.0384077 1.5046381
1.8082033 1.4418249 1.8078842
1.8751407 1.1510274 1.2550591
1.1460557 1.1472906 1.5388694
1.5730419 1.6543761 1.3547487
1.5036058 1.3079129 1.1179185
1.0241681 1.0888981 1.1558155
1.9004748 1.6816559 1.0354332
1.9847176 1.9177612 1.4398981
