# .PCD v0.7 - Point Cloud Data file format
VERSION 0.7
FIELDS x y z
SIZE 4 4 4
TYPE F F F
COUNT 1 1 1
WIDTH 1454
HEIGHT 1
VIEWPOINT 0 0 0 1 0 0 0
POINTS 1454
DATA ascii
-0.77104002 -0.37261 -1.2553
-0.76244003 -0.37985 -1.2523
-0.75374532 -0.37540883 -1.2547941
-0.74930501 -0.37437999 -1.2544501
-0.711555 -0.37155998 -1.2588501
-0.7054075 -0.37239251 -1.259325
-0.69357997 -0.37101001 -1.2593
-0.68858999 -0.37237 -1.2592
-0.76046002 -0.36757001 -1.2523
-0.7515111 -0.36485329 -1.2558445
-0.74770766 -0.36554152 -1.255246
-0.71359944 -0.36442563 -1.2562751
-0.70457751 -0.36529541 -1.2556165
-0.69502491 -0.36489454 -1.25722
-0.68482757 -0.36402705 -1.2565292
-0.67870247 -0.363305 -1.2585499
-0.75112993 -0.35638165 -1.25565
-0.74796897 -0.35384601 -1.25595
-0.71485823 -0.3563782 -1.2529818
-0.70564419 -0.35752165 -1.2520584
-0.69533151 -0.35717502 -1.2516143
-0.68437076 -0.35626423 -1.2535846
-0.67806888 -0.35381779 -1.2568778
-0.74565464 -0.34465703 -1.2544529
-0.72527003 -0.34716499 -1.2594
-0.680695 -0.34543002 -1.2507
-0.67801565 -0.34542629 -1.2545999
-0.75042999 -0.33151001 -1.2587
-0.74414635 -0.33591571 -1.2557642
-0.73439997 -0.33022001 -1.2588
-0.72948998 -0.33291 -1.2538
-0.68013501 -0.33454001 -1.2550499
-0.67852885 -0.33512333 -1.2559667
-0.74328697 -0.32386461 -1.2554616
-0.73895746 -0.32268 -1.2569749
-0.68001997 -0.32449502 -1.2549
-0.67872 -0.326002 -1.2549299
-0.74199748 -0.31691998 -1.2555001
-0.73687994 -0.31794 -1.25555
-0.68062001 -0.31535333 -1.2584666
-0.67874724 -0.31568635 -1.2545364
-0.74155003 -0.30869001 -1.2531
-0.68065751 -0.30353749 -1.2537501
-0.67804468 -0.30540177 -1.2559528
-0.74472666 -0.29653001 -1.2538
-0.68067998 -0.29159001 -1.2591
-0.67786521 -0.29598269 -1.2541268
-0.67590666 -0.28606501 -1.2533334
-0.68378001 -0.27186999 -1.2596
-0.68013 -0.26909 -1.253
-0.67967999 -0.26763999 -1.2524
-0.69037998 -0.25161999 -1.2569
-0.68908 -0.25411499 -1.2588
0.40751669 -0.24198 -1.2594333
0.41307253 -0.24186251 -1.2593999
0.422575 -0.24281001 -1.2590834
0.43823999 -0.240235 -1.2595
0.40704998 -0.23437811 -1.2572
0.41426894 -0.2354648 -1.2558864
0.42503384 -0.23467965 -1.2562355
0.43495122 -0.23432167 -1.2569581
0.44157499 -0.23283499 -1.25755
0.40556392 -0.22544214 -1.2554106
0.41573617 -0.22648335 -1.2518554
0.42560369 -0.22563635 -1.2523091
0.4348768 -0.22571473 -1.2522789
0.44158 -0.224755 -1.2526
0.40380061 -0.21565998 -1.2548294
0.43109 -0.21797 -1.2507
0.44466338 -0.21533333 -1.2526667
-0.69937003 -0.20745 -1.2579
0.40346467 -0.20539533 -1.2537467
0.44591001 -0.20934001 -1.2529
0.40358213 -0.19488715 -1.2548429
0.40333053 -0.18490055 -1.2553334
0.40264532 -0.17543 -1.2535801
0.40321571 -0.16530572 -1.2544358
0.40371856 -0.15584572 -1.2533714
0.40594 -0.14167 -1.25325
0.40913001 -0.13072 -1.2563
0.41527 -0.098624997 -1.252
0.42346001 -0.071106002 -1.2512
-0.93590331 -0.62233669 -1.2451
-0.89438999 -0.62184 -1.2472
-0.85927999 -0.62304997 -1.2434
-0.81233501 -0.62613499 -1.2449501
-0.81 -0.62611997 -1.2431999
-0.79627001 -0.62463999 -1.24815
-0.78812999 -0.62321001 -1.2469
-0.76290405 -0.62367404 -1.2459199
-0.75410181 -0.62287456 -1.2444726
-0.74629998 -0.62690669 -1.2417667
-0.93256998 -0.618025 -1.2425499
-0.92822999 -0.61521 -1.2499
-0.88793999 -0.61097997 -1.2413
-0.86843002 -0.61816001 -1.2460999
-0.80890995 -0.61527008 -1.2446333
-0.79467499 -0.61591995 -1.2464499
-0.76106668 -0.61737996 -1.2424667
-0.75825751 -0.61820245 -1.2430251
-0.92546999 -0.60585999 -1.2498
-0.89170003 -0.60993999 -1.2484
-0.81253999 -0.60255003 -1.243
-0.80287999 -0.60901999 -1.2434
-0.79076999 -0.60727 -1.2429
-0.91446 -0.59829998 -1.2403001
-0.87340999 -0.59559 -1.2445
-0.80721003 -0.59662998 -1.2467
-0.79725999 -0.59944999 -1.2427
-0.78364998 -0.58201998 -1.2445999
-0.89403337 -0.57612336 -1.2439333
-0.87720001 -0.57590002 -1.2446001
-0.80239999 -0.57854998 -1.2404
-0.79711998 -0.57135999 -1.2445
-0.78404331 -0.57660335 -1.2460667
-0.88578999 -0.56686002 -1.2479
-0.88309002 -0.55763 -1.2474999
-0.87452 -0.55543 -1.2493
-0.78855997 -0.54487997 -1.2454
-0.86330003 -0.53908998 -1.2422
-0.79092503 -0.53644001 -1.2481999
-0.78669667 -0.53714329 -1.2469667
-0.77973002 -0.53956997 -1.2467999
-0.79293001 -0.52472001 -1.2463
-0.77938998 -0.52503002 -1.247
-0.8617 -0.51941001 -1.2478
-0.84688997 -0.51012999 -1.2464
-0.77498001 -0.5133 -1.2434
-0.78285998 -0.50356001 -1.2413
-0.83677 -0.49412251 -1.2453251
-0.77165997 -0.48320001 -1.2438999
-0.77594 -0.46312499 -1.2414999
-0.77464855 -0.45574 -1.2429143
-0.77353203 -0.44721204 -1.2444199
-0.76286995 -0.42458498 -1.24365
-0.77532995 -0.41460001 -1.2449
-0.76238 -0.41248 -1.2467999
-0.76155329 -0.40579 -1.2474667
-0.75700104 -0.39555001 -1.2458198
-0.75643128 -0.38588497 -1.24555
-0.75773001 -0.37184501 -1.24605
-0.74593997 -0.37481666 -1.2447333
-0.74791002 -0.36917999 -1.2485
-0.76152003 -0.35923001 -1.2469
-0.75652999 -0.35126501 -1.24255
-0.71293253 -0.35214251 -1.2492499
-0.70440251 -0.3525925 -1.2484417
-0.69484997 -0.35272539 -1.2491385
-0.68627501 -0.35132834 -1.2492
-0.67800999 -0.35036001 -1.249
-0.74524999 -0.34097999 -1.2491
-0.72134495 -0.34271002 -1.24805
-0.71345687 -0.34505937 -1.2456625
-0.70497459 -0.34476411 -1.2447959
-0.69550484 -0.34524783 -1.2460259
-0.68443674 -0.34498212 -1.2462463
-0.67897797 -0.34276801 -1.2468599
-0.743348 -0.33355999 -1.24614
-0.73905998 -0.33063 -1.24775
-0.72368503 -0.333895 -1.24505
-0.71502084 -0.33646083 -1.2426332
-0.7046172 -0.33700183 -1.2415636
-0.69568229 -0.33611998 -1.241323
-0.68425924 -0.33675289 -1.242925
-0.67774159 -0.33444154 -1.2464001
-0.74285996 -0.32686201 -1.24702
-0.72414505 -0.3236275 -1.242475
-0.67814243 -0.32524696 -1.2445384
-0.74432999 -0.31384999 -1.2472
-0.73741859 -0.31259283 -1.2459286
-0.72917002 -0.31909999 -1.247
-0.68013 -0.31151 -1.2431
-0.67833698 -0.31478846 -1.2460616
-0.74212003 -0.30559 -1.2405
-0.73561996 -0.30561221 -1.2435111
-0.68048668 -0.30382666 -1.244
-0.67869538 -0.30557802 -1.2446933
-0.742365 -0.293845 -1.24615
-0.73965001 -0.29205 -1.244
-0.68033665 -0.29507002 -1.2458
-0.67856467 -0.29490536 -1.244754
-0.74014997 -0.28996 -1.2407
-0.73817003 -0.28896001 -1.2421
-0.68134999 -0.28375 -1.2422
-0.67725611 -0.28490567 -1.2453619
-0.68044001 -0.27961001 -1.2413
-0.67755681 -0.27596632 -1.2434105
-0.67737752 -0.26540875 -1.24325
0.40729833 -0.22122167 -1.2483168
0.41348302 -0.22304538 -1.248554
0.42434752 -0.22186501 -1.2489749
0.43561381 -0.22161375 -1.2494124
0.44024 -0.22035 -1.2492
0.40658841 -0.21439795 -1.2463627
0.41481355 -0.21466826 -1.2450689
0.42451623 -0.21487834 -1.2457875
0.43454361 -0.21443392 -1.2463465
0.4414475 -0.214295 -1.2477
-0.69709998 -0.20231 -1.2496001
0.40439674 -0.20530999 -1.2442286
0.41664553 -0.20778336 -1.2410555
0.4251239 -0.20702942 -1.2421724
0.43647751 -0.20626168 -1.2427832
0.44243714 -0.20372571 -1.2435857
0.40359446 -0.19562945 -1.2456999
0.44315669 -0.19739 -1.2422667
0.40349814 -0.18580626 -1.2443063
0.44764 -0.18952 -1.2444999
0.40310407 -0.17505763 -1.2445295
0.40271857 -0.164915 -1.2446858
0.40331057 -0.15483779 -1.2443669
0.40331626 -0.1458675 -1.2452812
0.40410751 -0.13499001 -1.2433749
0.40461001 -0.12668668 -1.2415334
0.41067001 -0.10418 -1.2416
-0.73316002 -0.095941998 -1.2491
-0.93751001 -0.62559998 -1.2391
-0.92480999 -0.62006003 -1.2312
-0.89199501 -0.62418497 -1.23645
-0.81152999 -0.62515002 -1.23825
-0.80526501 -0.62334669 -1.2362834
-0.77391005 -0.62116998 -1.2324333
-0.76334 -0.62032002 -1.238
-0.752244 -0.62236798 -1.2346599
-0.7446593 -0.62632138 -1.2331499
-0.73667276 -0.6276564 -1.2337364
-0.92751998 -0.61729002 -1.2319
-0.85838997 -0.61558002 -1.2347
-0.80671668 -0.61543328 -1.2364999
-0.78979999 -0.61646998 -1.2364
-0.76320446 -0.61486655 -1.23403
-0.75718164 -0.61678499 -1.2356
-0.80776668 -0.60501331 -1.2363
-0.79553998 -0.60372496 -1.2372
-0.78637999 -0.60993999 -1.2329
-0.913845 -0.59643745 -1.2349499
-0.86434996 -0.59622002 -1.2361
-0.85503 -0.59672499 -1.2325001
-0.79069 -0.59397 -1.238
-0.78514004 -0.59675252 -1.234025
-0.90191001 -0.58174998 -1.2374001
-0.80175 -0.58884001 -1.2398
-0.78221673 -0.58660001 -1.2340333
-0.87291998 -0.57682002 -1.2367001
-0.80040002 -0.57959002 -1.2361
-0.79316002 -0.57468998 -1.2352999
-0.780375 -0.575185 -1.23485
-0.77710998 -0.57690001 -1.2304
-0.86277997 -0.56660998 -1.2342
-0.78944004 -0.56510997 -1.2326
-0.77739 -0.56579667 -1.2324001
-0.86756003 -0.55467999 -1.2376
-0.77754337 -0.55436665 -1.2324333
-0.78262496 -0.54373002 -1.23445
-0.77498001 -0.54288 -1.2308
-0.78229666 -0.53594667 -1.2372334
-0.77502805 -0.53329402 -1.2329199
-0.83743 -0.52157998 -1.2352
-0.77649832 -0.52632999 -1.2320167
-0.78390503 -0.51329499 -1.23665
-0.83737999 -0.50682002 -1.2312
-0.77447999 -0.50297499 -1.23615
-0.76761001 -0.50335002 -1.2334
-0.77739501 -0.494515 -1.2347
-0.76673001 -0.49233001 -1.2309
-0.77470005 -0.48267999 -1.2316999
-0.76673001 -0.48381001 -1.2343
-0.77276999 -0.47370666 -1.2329999
-0.77281499 -0.46480253 -1.2363375
-0.7646175 -0.46295249 -1.2319
-0.77043998 -0.45243001 -1.2378
-0.76420671 -0.45517668 -1.2336
-0.80365503 -0.44532001 -1.2356501
-0.76089501 -0.44621998 -1.2323501
-0.76138997 -0.43051001 -1.2388
-0.75792998 -0.43469501 -1.23095
-0.75946498 -0.423585 -1.23265
-0.77158999 -0.41477999 -1.2332
-0.76646858 -0.41497999 -1.2336
-0.75768 -0.41425002 -1.2375
-0.76336002 -0.40811667 -1.2335
-0.75634754 -0.40410751 -1.2359
-0.75514668 -0.39685667 -1.2368666
-0.75500405 -0.38507801 -1.23704
-0.74953002 -0.38824999 -1.2309
-0.75204998 -0.37322 -1.2304
-0.75353503 -0.36290002 -1.23615
-0.75055999 -0.35038 -1.2344
-0.74906999 -0.34711 -1.2326
-0.71285599 -0.33242998 -1.23806
-0.7052893 -0.33328715 -1.2381573
-0.69560373 -0.3342725 -1.23905
-0.68552899 -0.33264697 -1.2383201
-0.67769003 -0.33142 -1.2381001
-0.74163002 -0.32030001 -1.2359
-0.72112 -0.32347 -1.23805
-0.71429384 -0.32582441 -1.2348
-0.70497954 -0.32497519 -1.233784
-0.69565302 -0.32513034 -1.2348634
-0.68483102 -0.32579669 -1.2359067
-0.67808336 -0.32458112 -1.2378554
-0.72143668 -0.31313333 -1.2340666
-0.71576202 -0.31740201 -1.23098
-0.7047478 -0.31805333 -1.2313334
-0.69312918 -0.31676307 -1.2318385
-0.68456066 -0.31724533 -1.23176
-0.67766345 -0.31541502 -1.2351148
-0.73126 -0.30302 -1.2379999
-0.72293746 -0.30475 -1.23175
-0.677926 -0.30437598 -1.2334
-0.73402804 -0.29631001 -1.23472
-0.72931999 -0.29605001 -1.2337
-0.6785714 -0.29474998 -1.2351142
-0.74207997 -0.28760999 -1.2307
-0.73631752 -0.28567502 -1.2336
-0.72981 -0.28788999 -1.2319
-0.68033999 -0.28346002 -1.23525
-0.67831945 -0.28535819 -1.2351823
-0.68102998 -0.27694499 -1.2381001
-0.67887354 -0.274205 -1.2337427
-0.67778689 -0.2651985 -1.2350191
-0.74699003 -0.25062001 -1.2381999
-0.67706358 -0.25567451 -1.234391
-0.74748999 -0.24950001 -1.2393
-0.67653 -0.244535 -1.2312
0.40725332 -0.20302333 -1.2382734
0.41425055 -0.20331943 -1.2379612
0.42526573 -0.20255713 -1.2377214
0.4332892 -0.2031769 -1.2381307
-0.69439 -0.19033 -1.2369
0.40641388 -0.19468357 -1.2354037
0.41480678 -0.19501641 -1.2341394
0.42483169 -0.19528934 -1.2354335
0.43453792 -0.19497429 -1.2355535
0.44266802 -0.19253001 -1.23668
0.40485087 -0.18557262 -1.2339435
0.41501668 -0.18892331 -1.2307833
0.42609662 -0.18733333 -1.2322867
0.43484437 -0.18719438 -1.2318687
0.44224998 -0.18435715 -1.2333715
0.40395546 -0.17490301 -1.234185
0.44557667 -0.17731667 -1.2321
0.40343398 -0.1644595 -1.2349751
0.44942331 -0.16306001 -1.2321666
0.45076001 -0.16471 -1.2347
0.40338749 -0.15518188 -1.2336189
0.40316772 -0.14468154 -1.2351538
0.40337572 -0.13508071 -1.2345856
0.40328252 -0.12514167 -1.23445
0.40432498 -0.1161475 -1.2348624
0.404165 -0.10696501 -1.2321999
-0.72229999 -0.097852498 -1.23435
0.41176 -0.090300001 -1.2399
-0.72325504 -0.088117003 -1.23455
0.41073999 -0.082434997 -1.2332
-0.72521001 -0.075113997 -1.2366
0.41115999 -0.078729004 -1.2344
0.41624999 -0.065187998 -1.2361
0.41986001 -0.053063001 -1.2394
-0.93351001 -0.63154 -1.2242
-0.7542966 -0.63230997 -1.2245667
-0.74499834 -0.63526618 -1.2263038
-0.92722338 -0.62195665 -1.2221333
-0.81419998 -0.62764001 -1.2280999
-0.80207998 -0.6242075 -1.22445
-0.76256001 -0.62112498 -1.2214999
-0.75420105 -0.62290108 -1.2227368
-0.74782008 -0.62429059 -1.2266563
-0.92641002 -0.61778998 -1.2298
-0.88257003 -0.61849999 -1.2280999
-0.84710002 -0.61648995 -1.2262001
-0.79498005 -0.61282665 -1.2260333
-0.78248 -0.61431003 -1.2229
-0.77211666 -0.61304998 -1.2214
-0.76494914 -0.61556882 -1.2251626
-0.75597501 -0.61926401 -1.2260201
-0.74456 -0.61988002 -1.2278
-0.91487998 -0.60552001 -1.2271
-0.80304003 -0.60275 -1.2246
-0.79439497 -0.60267001 -1.22435
-0.78451097 -0.60553205 -1.2229
-0.76732004 -0.60960001 -1.2256501
-0.90310502 -0.59467006 -1.2204
-0.86756003 -0.59039998 -1.2209001
-0.85105002 -0.59919 -1.2294
-0.84842998 -0.59851998 -1.225
-0.79528999 -0.59378999 -1.2249
-0.78291339 -0.59619665 -1.2229334
-0.77895254 -0.59138751 -1.222975
-0.8973 -0.58468747 -1.223125
-0.78100193 -0.58622801 -1.22478
-0.77785891 -0.58317447 -1.2258111
-0.88779002 -0.57652998 -1.2263
-0.85641003 -0.57685 -1.22865
-0.79641998 -0.57791001 -1.2292
-0.78038001 -0.57388002 -1.2272
-0.77670002 -0.57424998 -1.2265222
-0.87866998 -0.56336999 -1.2271
-0.7767145 -0.56564331 -1.2281222
-0.86690998 -0.55441499 -1.2237999
-0.78026998 -0.55168003 -1.221
-0.77419508 -0.55435628 -1.2281874
-0.78544998 -0.54530001 -1.2232
-0.77319378 -0.5453825 -1.226225
-0.76969504 -0.54407001 -1.22535
-0.78391004 -0.535465 -1.2272501
-0.77398098 -0.53573 -1.2261299
-0.76965666 -0.53592336 -1.2270666
-0.83793998 -0.52736002 -1.2286
-0.77391428 -0.5246442 -1.222975
-0.76802599 -0.52257407 -1.2250999
-0.84470999 -0.51762003 -1.2294
-0.77270997 -0.51453358 -1.2242786
-0.76784754 -0.51511252 -1.2254416
-0.82327998 -0.50713998 -1.2214
-0.77305698 -0.50593799 -1.2228701
-0.76716053 -0.50470167 -1.2241111
-0.77333295 -0.49542499 -1.22562
-0.76607144 -0.49444658 -1.2241652
-0.81494999 -0.48054001 -1.2225
-0.77310997 -0.48445332 -1.2289
-0.76595289 -0.4849681 -1.2254903
-0.77043998 -0.47476 -1.2294
-0.76432824 -0.47515589 -1.2255589
-0.76281202 -0.46526203 -1.2258501
-0.75989246 -0.46634001 -1.224275
-0.76294333 -0.45528999 -1.2269667
-0.7587589 -0.45524004 -1.2244778
-0.80102998 -0.44418001 -1.2265
-0.78372002 -0.44091001 -1.2214
-0.76146245 -0.44517252 -1.2274749
-0.75778222 -0.44465888 -1.2254111
-0.77866 -0.43380001 -1.2247
-0.75721532 -0.43486536 -1.2248801
-0.7720933 -0.42574334 -1.2238001
-0.76906502 -0.42243001 -1.2235
-0.75533223 -0.42547554 -1.2243445
-0.76613605 -0.41468394 -1.2262722
-0.75367302 -0.41444302 -1.2235899
-0.76003999 -0.40285 -1.2259001
-0.75378561 -0.40523624 -1.2240312
-0.75225168 -0.39529249 -1.2242666
-0.74905664 -0.39554 -1.2227665
-0.75183576 -0.38612002 -1.2246429
-0.74806666 -0.38651335 -1.2238332
-0.75093246 -0.377525 -1.2258251
-0.747325 -0.37261 -1.2219501
-0.75105 -0.36730662 -1.2256001
-0.7465775 -0.36680749 -1.2223749
-0.74309999 -0.35042 -1.2209001
-0.74409199 -0.34503397 -1.2232599
-0.74011999 -0.33193001 -1.2206
-0.73865497 -0.33608001 -1.22155
-0.73593998 -0.32265002 -1.2226
-0.70971 -0.32115999 -1.2292
-0.73519802 -0.31475601 -1.2237999
-0.71327662 -0.31346667 -1.2272111
-0.70503134 -0.31365365 -1.227291
-0.69551218 -0.31391212 -1.2281357
-0.6842646 -0.31310695 -1.2282383
-0.67852002 -0.311755 -1.2284999
-0.73396254 -0.30497497 -1.223525
-0.72049999 -0.30794001 -1.2288001
-0.71354377 -0.30495435 -1.2234437
-0.70510185 -0.30527851 -1.2234261
-0.69469488 -0.30579263 -1.2245913
-0.68493646 -0.3050577 -1.2252033
-0.67824841 -0.30421919 -1.2269584
-0.7324 -0.29216668 -1.2246
-0.723445 -0.29751 -1.22615
-0.71614003 -0.297535 -1.2209001
-0.70630503 -0.2992 -1.2210751
-0.69424582 -0.29803416 -1.2211833
-0.68475628 -0.29739437 -1.2219563
-0.67821801 -0.29520333 -1.2250199
-0.73393124 -0.28634626 -1.2239125
-0.72344333 -0.28761998 -1.2234
-0.68032002 -0.28009999 -1.2262
-0.67796302 -0.28507459 -1.2245232
-0.73559999 -0.27770001 -1.2214
-0.68083 -0.27425748 -1.2261
-0.67882258 -0.27466837 -1.2240751
-0.68082625 -0.26364499 -1.2253749
-0.67899817 -0.2649782 -1.2256273
-0.73653001 -0.25512001 -1.2234
-0.68071997 -0.25437498 -1.2228999
-0.67683882 -0.25484705 -1.2246057
-0.74181998 -0.24081001 -1.222
-0.67532933 -0.24509931 -1.2236
-0.67732245 -0.23506236 -1.2247
-0.68001997 -0.22287001 -1.2277
-0.67752999 -0.22892332 -1.2218
-0.68287998 -0.21566001 -1.2298
-0.67581999 -0.21887 -1.2203
0.40718573 -0.18335213 -1.2283356
0.41472524 -0.18433703 -1.2278334
0.42491934 -0.18239641 -1.2278215
0.43536916 -0.18256998 -1.2287
0.44233 -0.18166 -1.2297
-0.69060999 -0.179225 -1.2268
0.4068023 -0.1744563 -1.225148
0.41511515 -0.17511931 -1.2234414
0.42449158 -0.1746932 -1.2235451
0.43441233 -0.17482999 -1.22446
0.44145399 -0.17360601 -1.22614
0.40523177 -0.1656774 -1.2242478
0.41512749 -0.16709749 -1.220325
0.42507336 -0.16692001 -1.2204
0.4360275 -0.16695583 -1.2212584
0.44251749 -0.16559 -1.2226
0.40377334 -0.15457267 -1.2245533
0.40273339 -0.14569934 -1.2253799
0.40336853 -0.135277 -1.2251099
0.40333 -0.12479176 -1.2250882
0.40271601 -0.11441399 -1.2242867
0.40355921 -0.10525922 -1.224023
0.40432447 -0.095147669 -1.2228889
0.40863001 -0.088275 -1.2283
-0.71561003 -0.075607501 -1.2242
-0.70301002 -0.072186001 -1.2287
0.40757 -0.070653997 -1.2222
0.41451001 -0.054869 -1.223
0.41665 -0.048742 -1.2278
0.42129999 -0.030322 -1.2284
-0.94041997 -0.63994998 -1.2104
-0.93428999 -0.63540334 -1.2148
-0.92835999 -0.63066 -1.2108999
-0.88632327 -0.63341999 -1.2146666
-0.83089 -0.63747001 -1.2106
-0.81102341 -0.63556004 -1.2178999
-0.76506001 -0.6372 -1.2155
-0.7545867 -0.63239336 -1.2154332
-0.74456 -0.63971001 -1.2176
-0.92472667 -0.62294334 -1.2140667
-0.84439999 -0.625265 -1.2177
-0.80339998 -0.62489998 -1.2197
-0.77285999 -0.62186998 -1.2108999
-0.76519567 -0.62203038 -1.2144001
-0.75650877 -0.62443441 -1.2154813
-0.91391003 -0.61285996 -1.2140501
-0.87557495 -0.61188996 -1.21655
-0.83885002 -0.61781502 -1.2193
-0.79069668 -0.61388999 -1.2170334
-0.78428155 -0.61334217 -1.2153571
-0.77316046 -0.61410856 -1.2154809
-0.76755685 -0.61563843 -1.2167846
-0.90489 -0.60143 -1.2124
-0.84581 -0.60764998 -1.2158
-0.80166 -0.60637498 -1.2146499
-0.79592001 -0.60811001 -1.2136
-0.78408772 -0.60625768 -1.217223
-0.90567499 -0.5948 -1.2144001
-0.79604 -0.59986001 -1.2125
-0.78237998 -0.59782499 -1.218325
-0.77875 -0.59920001 -1.2174
-0.89331001 -0.58263004 -1.2174
-0.84794998 -0.58819997 -1.2134
-0.78714001 -0.58293998 -1.21165
-0.88661999 -0.57739002 -1.2187999
-0.79154003 -0.57700002 -1.2149
-0.88124001 -0.56733 -1.2194999
-0.87532997 -0.56172001 -1.2171
-0.78112 -0.56190002 -1.2126501
-0.85451669 -0.55685997 -1.2140001
-0.78087002 -0.55256999 -1.2165
-0.77784503 -0.55506003 -1.2121501
-0.86364001 -0.54649001 -1.2193
-0.85570002 -0.54454499 -1.2165999
-0.84104002 -0.54021001 -1.2183
-0.78062499 -0.54811001 -1.2179999
-0.77504665 -0.54377002 -1.2110333
-0.84772998 -0.53109002 -1.2139
-0.83420998 -0.53049999 -1.2157
-0.78096002 -0.53851002 -1.2177
-0.77374136 -0.53310859 -1.2137715
-0.77405661 -0.52695996 -1.2165667
-0.76937002 -0.52096999 -1.2137001
-0.77239829 -0.51508671 -1.2185
-0.76986998 -0.51521999 -1.2171
-0.77092999 -0.50198001 -1.2194999
-0.76788497 -0.50361001 -1.2181499
-0.82213002 -0.48704001 -1.2177
-0.80097997 -0.46952 -1.2121
-0.78163999 -0.44174001 -1.2125
-0.78286999 -0.43187499 -1.2134
-0.77380502 -0.43191999 -1.21175
-0.77170998 -0.42394003 -1.2140167
-0.76870328 -0.42294165 -1.2137834
-0.76791376 -0.41812998 -1.2168375
-0.75304002 -0.41169 -1.2199
-0.75303996 -0.40487498 -1.2197499
-0.74956 -0.39515001 -1.219
-0.75054997 -0.38464999 -1.2193
-0.74608505 -0.38372749 -1.218675
-0.74856001 -0.37250999 -1.2194999
-0.74571711 -0.36299139 -1.2185143
-0.74360806 -0.35517338 -1.2159733
-0.739375 -0.35167 -1.2137001
-0.74457002 -0.34869999 -1.2193
-0.74094003 -0.33796334 -1.2188667
-0.73758 -0.33345374 -1.2167749
-0.74058002 -0.32846999 -1.2177
-0.7349987 -0.32512802 -1.2150667
-0.73409939 -0.31564063 -1.21465
-0.73298997 -0.30494285 -1.2154644
-0.72900999 -0.30620998 -1.2142501
-0.71224999 -0.30055001 -1.22
-0.70207 -0.301135 -1.2197499
-0.69748998 -0.30077499 -1.2183
-0.73232007 -0.29547229 -1.2159384
-0.72884405 -0.295286 -1.21436
-0.71339703 -0.29413527 -1.2167883
-0.70518875 -0.29382953 -1.2168913
-0.69559693 -0.29311109 -1.217442
-0.68534082 -0.29244387 -1.2178384
-0.67858207 -0.29298401 -1.2187799
-0.73190379 -0.28493625 -1.21655
-0.72567141 -0.28419143 -1.214543
-0.71382904 -0.28650001 -1.2135454
-0.70484662 -0.28516123 -1.2124875
-0.69471997 -0.28538111 -1.2136556
-0.68449032 -0.28534585 -1.214962
-0.67867619 -0.28524384 -1.2180307
-0.73115754 -0.2773425 -1.217
-0.72653174 -0.27538297 -1.2151293
-0.71637797 -0.27753401 -1.21162
-0.68249857 -0.27683499 -1.2119429
-0.67834818 -0.27502376 -1.2141439
-0.73110998 -0.26989001 -1.2151
-0.72570503 -0.26519501 -1.2111001
-0.68002003 -0.26403999 -1.2195333
-0.67873168 -0.26530498 -1.2135667
-0.72687 -0.25560999 -1.21065
-0.68033004 -0.25461334 -1.215
-0.67825359 -0.25445998 -1.2164181
-0.68027997 -0.24293001 -1.2133666
-0.67748672 -0.24475335 -1.2160075
-0.68085998 -0.23589249 -1.21155
-0.67764944 -0.23476951 -1.2150152
-0.68014997 -0.22406 -1.2136
-0.67601258 -0.2253079 -1.2143368
-0.67404753 -0.216195 -1.212725
-0.67353499 -0.20904499 -1.2107
-0.67897499 -0.19479001 -1.21415
-0.68443 -0.18616 -1.2187999
0.40863001 -0.17141999 -1.2194999
0.41095001 -0.17141999 -1.2194999
0.40745813 -0.16348563 -1.2164311
0.41467518 -0.16467477 -1.216781
0.42421767 -0.1646263 -1.2176667
0.43387768 -0.16444825 -1.2181354
0.44119 -0.16090667 -1.2189666
-0.69529003 -0.15051 -1.212
0.40595949 -0.15491192 -1.2144806
0.41504157 -0.15558346 -1.21225
0.4254809 -0.15505467 -1.2142873
0.43512276 -0.15527798 -1.2144665
0.44243857 -0.15407 -1.2164143
0.4038974 -0.14542176 -1.2145131
0.41143501 -0.149195 -1.21105
0.42162001 -0.14914 -1.2106
0.43577182 -0.14609 -1.2117727
0.44383109 -0.14557223 -1.212411
0.40335622 -0.13537127 -1.2147187
0.44662666 -0.13607 -1.2122834
0.40377682 -0.12463473 -1.2151369
-0.70862001 -0.11933 -1.2172
0.40357456 -0.11555551 -1.215575
-0.71289003 -0.10095 -1.2176
0.40329811 -0.10498812 -1.2151375
0.45839 -0.10535 -1.2136
0.40345126 -0.095171437 -1.214425
-0.71428001 -0.089787997 -1.2165
0.40342203 -0.086302295 -1.2147
0.40493113 -0.075518109 -1.2140334
0.40536749 -0.067277752 -1.2115
0.40709001 -0.056674 -1.2121
0.40981001 -0.044617001 -1.2135
-0.94041997 -0.64305001 -1.2088
-0.937585 -0.64212 -1.2046
-0.88559335 -0.64440995 -1.2058333
-0.80717999 -0.64304501 -1.2063999
-0.77508003 -0.64552999 -1.2088
-0.76112998 -0.64863503 -1.2041
-0.75178862 -0.64517719 -1.2024715
-0.74702936 -0.64380687 -1.2048937
-0.92739499 -0.63432503 -1.20225
-0.88518 -0.63981998 -1.2005
-0.83516002 -0.63516998 -1.209
-0.82157999 -0.63449001 -1.2000999
-0.80768001 -0.63938999 -1.2093
-0.76466244 -0.63410997 -1.203375
-0.74819505 -0.63888001 -1.2082
-0.92379999 -0.62527001 -1.2035501
-0.91737002 -0.62049001 -1.2082
-0.88145 -0.62768501 -1.2082
-0.87502003 -0.62063003 -1.2085
-0.83056003 -0.62168998 -1.202
-0.82839501 -0.62496001 -1.20705
-0.77194113 -0.62311554 -1.2034222
-0.76644546 -0.62368464 -1.2073461
-0.75683999 -0.62470001 -1.2077999
-0.91402 -0.61163998 -1.2072001
-0.79018003 -0.61637002 -1.2092
-0.78375667 -0.61388499 -1.2042667
-0.77468854 -0.61576128 -1.204793
-0.76994997 -0.61707997 -1.2075
-0.83533001 -0.60277998 -1.2044001
-0.79242998 -0.60180002 -1.21
-0.90100998 -0.59390998 -1.2096
-0.89788997 -0.59389502 -1.2019
-0.79303998 -0.59884 -1.2072001
-0.78595001 -0.59307998 -1.2017
-0.84372002 -0.58037001 -1.2096
-0.78489995 -0.58737004 -1.2052
-0.78372753 -0.5748325 -1.2049251
-0.77889001 -0.57409 -1.2026
-0.85154003 -0.56941003 -1.2081
-0.84442997 -0.56146502 -1.2069499
-0.78046 -0.56845999 -1.2029999
-0.77772504 -0.56510997 -1.2033
-0.86193001 -0.55326998 -1.2083
-0.84612 -0.55056 -1.2024
-0.77614003 -0.55515432 -1.2046999
-0.83880001 -0.54711002 -1.2012
-0.77276003 -0.54407668 -1.2041888
-0.77253002 -0.53556752 -1.209425
-0.76888001 -0.53503001 -1.2066
-0.76788998 -0.52722001 -1.2081
-0.83134001 -0.51349002 -1.2031
-0.83081001 -0.49759999 -1.2088
-0.82708001 -0.49656001 -1.2029001
-0.79486001 -0.45536748 -1.2054999
-0.78338665 -0.44688335 -1.2024332
-0.77952999 -0.44271001 -1.2036
-0.77488536 -0.43214473 -1.2036589
-0.77176142 -0.42656001 -1.2058572
-0.76966667 -0.42567 -1.2081
-0.73067999 -0.30950001 -1.2095
-0.71334332 -0.28299665 -1.2091001
-0.70769203 -0.28188598 -1.20948
-0.69719499 -0.28104749 -1.20945
-0.68558502 -0.2802 -1.20995
-0.72087997 -0.27254 -1.2099
-0.7134738 -0.27547753 -1.2066813
-0.70465565 -0.2744033 -1.2066633
-0.69466257 -0.27457675 -1.2070144
-0.68542498 -0.27383545 -1.2073916
-0.72291332 -0.26666665 -1.2072667
-0.71478826 -0.26562116 -1.2025765
-0.70558947 -0.26638427 -1.2028571
-0.69417679 -0.26508361 -1.2028079
-0.68432468 -0.26479939 -1.2042751
-0.67871398 -0.26430899 -1.2065001
-0.72163999 -0.25914001 -1.2006
-0.71875 -0.25716501 -1.2004
-0.69408661 -0.25909331 -1.2004666
-0.68300575 -0.25721928 -1.2017928
-0.6785053 -0.25429234 -1.2053293
-0.68063331 -0.24562001 -1.2049166
-0.67843175 -0.24515 -1.205409
-0.68015999 -0.23348002 -1.2041
-0.67877126 -0.23509602 -1.2042536
-0.68097144 -0.22554712 -1.2036428
-0.67822051 -0.22447701 -1.206165
-0.68088657 -0.21502554 -1.2027888
-0.67645419 -0.21452907 -1.2060001
-0.68076885 -0.20497555 -1.2012889
-0.67581052 -0.2053165 -1.2029301
-0.68059999 -0.19624001 -1.2009001
-0.67621171 -0.19509666 -1.2027278
-0.67755258 -0.18539 -1.204875
-0.68011999 -0.1777 -1.2029001
0.40964001 -0.15202001 -1.2093
0.41426003 -0.15263501 -1.20925
0.42814001 -0.15019999 -1.2096
0.43277001 -0.15019999 -1.2095
0.40604299 -0.143306 -1.20707
0.41438198 -0.1450671 -1.2057387
0.42465767 -0.14477038 -1.2072538
0.43415725 -0.14415863 -1.2078593
0.44235501 -0.14281251 -1.207275
-0.69897002 -0.13294999 -1.2074
0.40562972 -0.13573657 -1.2045172
0.41578293 -0.13719708 -1.2026411
0.42399755 -0.13658287 -1.202843
0.43454474 -0.13531962 -1.203096
0.44294667 -0.13423999 -1.2051333
0.40417299 -0.125505 -1.205045
0.42287999 -0.12982 -1.2011
0.43654665 -0.12916334 -1.2006999
0.44434875 -0.12541251 -1.20385
0.40425104 -0.11499209 -1.2049526
0.44734001 -0.11525 -1.2004
0.45102999 -0.11175 -1.2033
0.40351748 -0.10511799 -1.20485
0.40392295 -0.094730347 -1.2055
0.40324497 -0.084725 -1.20516
0.40329504 -0.075545646 -1.2036501
-0.70210999 -0.061271999 -1.2056
0.40392703 -0.064406894 -1.20398
-0.70818001 -0.054000001 -1.2036999
0.40518335 -0.054881498 -1.2032834
0.40725249 -0.044496249 -1.2044749
0.40867999 -0.036982998 -1.2066
0.41326001 -0.022502 -1.2069
-0.93843001 -0.65095001 -1.1909
-0.76564664 -0.65574002 -1.1913999
-0.75766504 -0.65056503 -1.1928999
-0.93610001 -0.64753997 -1.1966
-0.88305497 -0.64670503 -1.19835
-0.82729 -0.64649999 -1.199
-0.81326002 -0.64399999 -1.1900001
-0.80830997 -0.64924997 -1.1997
-0.77450711 -0.64490569 -1.1940428
-0.76262999 -0.64881998 -1.1927
-0.75449473 -0.64554322 -1.1941475
-0.92584503 -0.63422501 -1.19455
-0.82659 -0.63543999 -1.1981499
-0.81799001 -0.63077003 -1.1952
-0.80015999 -0.63932002 -1.1947
-0.77131337 -0.63713664 -1.1922666
-0.76745528 -0.63430309 -1.1949
-0.735165 -0.636325 -1.1962
-0.7299 -0.63527 -1.1941
-0.86849999 -0.62169999 -1.1913
-0.77475947 -0.62418425 -1.1940857
-0.76541746 -0.62612498 -1.1949999
-0.75121999 -0.62427002 -1.1935
-0.74208999 -0.62849498 -1.19495
-0.73693001 -0.62548 -1.197
-0.82200503 -0.61506498 -1.19215
-0.78370619 -0.61536336 -1.1960722
-0.77679878 -0.61793172 -1.1959059
-0.75686002 -0.61996001 -1.1961
-0.74226999 -0.61680001 -1.1900001
-0.79004002 -0.60729003 -1.1971
-0.78597999 -0.60558999 -1.1937
-0.83427 -0.59483999 -1.196
-0.82557994 -0.59563667 -1.1936666
-0.78408861 -0.59581143 -1.1929142
-0.83293498 -0.58279002 -1.19435
-0.78183335 -0.58482832 -1.1950999
-0.77963662 -0.58422667 -1.1938334
-0.83367997 -0.57302666 -1.1952333
-0.82950997 -0.57248002 -1.1932
-0.77762669 -0.57584828 -1.1949166
-0.87541997 -0.56856 -1.1941
-0.86649001 -0.56015998 -1.1979001
-0.84192002 -0.56176001 -1.1949
-0.77581751 -0.56839001 -1.1967499
-0.86676997 -0.55908662 -1.1955334
-0.83674002 -0.55729997 -1.198
-0.85314 -0.54452002 -1.1923
-0.84108001 -0.52442998 -1.1955
-0.83904999 -0.52495003 -1.1967
-0.80249333 -0.47384667 -1.1904999
-0.79917997 -0.47420999 -1.1925
-0.80022001 -0.46039999 -1.1998
-0.79101998 -0.46675 -1.1908
-0.79279333 -0.45399666 -1.1924334
-0.78280002 -0.44404602 -1.1945001
-0.77710003 -0.44169751 -1.192425
-0.77548641 -0.43546858 -1.1942714
-0.77636999 -0.42965999 -1.1979001
-0.71403837 -0.26173332 -1.1991833
-0.70421755 -0.2625525 -1.198375
-0.69544196 -0.26076999 -1.19892
-0.68965 -0.26648 -1.1998
-0.72103 -0.25084001 -1.1968
-0.71446294 -0.25496703 -1.196353
-0.7044962 -0.25495884 -1.1958913
-0.69470626 -0.25441501 -1.1964346
-0.68519652 -0.25343829 -1.1972131
-0.67969 -0.25229999 -1.1979001
-0.71610218 -0.24562427 -1.1929928
-0.705809 -0.24738841 -1.1919631
-0.69471055 -0.24634352 -1.1924942
-0.68453699 -0.24507836 -1.1935916
-0.67877817 -0.24469 -1.1964818
-0.72162253 -0.2335275 -1.19145
-0.71653003 -0.23981 -1.1912
-0.70134002 -0.2397 -1.1906
-0.6816445 -0.23736331 -1.1939223
-0.67893094 -0.23460364 -1.1946273
-0.73246998 -0.22521999 -1.1999
-0.72416002 -0.22886001 -1.1935
-0.68053222 -0.22522333 -1.1942
-0.67884707 -0.22488001 -1.1948701
-0.73368001 -0.21209 -1.1956
-0.68067503 -0.214645 -1.1956298
-0.67906708 -0.21505284 -1.1916
-0.68103337 -0.20590889 -1.1955667
-0.67409599 -0.20356998 -1.19749
-0.668145 -0.20104 -1.19945
-0.68066335 -0.19510669 -1.1955584
-0.67584246 -0.19484815 -1.1976312
-0.66883999 -0.1999 -1.1964
-0.68086165 -0.18496417 -1.1942084
-0.67554098 -0.18510094 -1.1941096
-0.68122 -0.17666499 -1.1961
-0.67589664 -0.17604667 -1.1945333
-0.67576998 -0.16993 -1.1914999
-0.68277001 -0.15605 -1.19295
-0.69173002 -0.13548 -1.1985
0.40636697 -0.13187699 -1.19787
0.41350156 -0.13288075 -1.1988385
0.42482769 -0.13234924 -1.1989539
0.43589202 -0.132458 -1.199
0.44040999 -0.1331 -1.1987
-0.69230998 -0.1248475 -1.19415
0.40640068 -0.12491075 -1.1961555
0.41478673 -0.12478175 -1.195447
0.42547497 -0.12510648 -1.1968824
0.43435678 -0.12409819 -1.1968226
0.44064751 -0.125055 -1.198875
0.40542117 -0.11559241 -1.1933361
0.41584161 -0.11644081 -1.191872
0.42562875 -0.11568166 -1.1926501
0.43517184 -0.11571036 -1.1934593
0.44178998 -0.11607376 -1.1951126
-0.70014 -0.10646 -1.199
0.40375391 -0.10500056 -1.1945276
0.42629999 -0.10951 -1.1913
0.43419498 -0.1088725 -1.1910751
0.44309667 -0.10630667 -1.1913667
-0.69985998 -0.090329997 -1.1912
0.40366611 -0.095327832 -1.1948832
0.44738501 -0.098061502 -1.1906
0.40427661 -0.084961139 -1.195962
-0.69397002 -0.074056998 -1.1992
0.40362054 -0.074834555 -1.194389
0.40352389 -0.06545794 -1.1947333
-0.70086002 -0.058304001 -1.1950001
0.40306151 -0.055459235 -1.1943538
0.40391797 -0.045239899 -1.19291
0.40487167 -0.035214666 -1.1938167
0.40877497 -0.0158625 -1.1953499
-0.94266999 -0.65201002 -1.1869
-0.88120335 -0.65797669 -1.1835667
-0.87926 -0.65640998 -1.1863
-0.80488998 -0.65161002 -1.1862
-0.78144801 -0.65655005 -1.18382
-0.77519161 -0.65415663 -1.1833833
-0.7660287 -0.6524294 -1.1831499
-0.75858998 -0.65011001 -1.1892999
-0.74021 -0.65786999 -1.1808
-0.73392999 -0.65367752 -1.1856
-0.72943997 -0.65079999 -1.1847
-0.81310499 -0.64293003 -1.1821001
-0.8056733 -0.64592999 -1.1834667
-0.79773998 -0.64230001 -1.1828001
-0.77377933 -0.64180541 -1.1831534
-0.76245224 -0.64839447 -1.1849999
-0.75806004 -0.64807856 -1.1868715
-0.73505497 -0.64647502 -1.1876
-0.72758001 -0.64511001 -1.1838
-0.92466998 -0.63485003 -1.1821001
-0.81375498 -0.63436252 -1.1866
-0.80817002 -0.639 -1.183
-0.77220082 -0.63678461 -1.1861924
-0.76980001 -0.63207 -1.1881
-0.73225999 -0.63920999 -1.1855
-0.72820997 -0.63409662 -1.1872667
-0.92399001 -0.62984997 -1.1887
-0.9153533 -0.62364334 -1.1845332
-0.86633998 -0.62861001 -1.1838
-0.81757498 -0.62480998 -1.1868
-0.80980003 -0.62918001 -1.1805
-0.78103745 -0.62510002 -1.1853
-0.7770772 -0.62479329 -1.1847389
-0.76537001 -0.6253913 -1.1841
-0.75430501 -0.62219501 -1.1868999
-0.72712505 -0.62497497 -1.18205
-0.90371001 -0.61260498 -1.1819
-0.7826516 -0.61626917 -1.1867083
-0.77784175 -0.61891001 -1.1854
-0.75574666 -0.61778671 -1.1838001
-0.74294746 -0.61447251 -1.182825
-0.73782003 -0.61641002 -1.1865
-0.7840575 -0.60456252 -1.18555
-0.77972001 -0.60373497 -1.1842501
-0.78189504 -0.59795749 -1.1874
-0.77797002 -0.59175998 -1.1869
-0.88809001 -0.58577001 -1.187
-0.82222998 -0.58820999 -1.1826
-0.86840999 -0.56356001 -1.1896
-0.83301997 -0.56252503 -1.1889501
-0.82990998 -0.56528002 -1.1872
-0.86128002 -0.55774999 -1.1803
-0.85571998 -0.55026001 -1.1892
-0.84987998 -0.54363 -1.1872
-0.82814503 -0.54659998 -1.18285
-0.84297001 -0.53863001 -1.1826
-0.83420998 -0.53609997 -1.1834
-0.82749999 -0.53542 -1.1819
-0.83837998 -0.52746999 -1.1896
-0.80144 -0.46946999 -1.1841
-0.79328507 -0.4655275 -1.1809251
-0.78858602 -0.46307001 -1.18224
-0.79492497 -0.45840502 -1.1889
-0.78612006 -0.45401248 -1.1864876
-0.77968001 -0.4508 -1.1817
-0.78267998 -0.44868001 -1.1831
-0.77740997 -0.44353801 -1.18522
-0.77425432 -0.43543428 -1.1859857
-0.71198004 -0.24305832 -1.1890501
-0.70458418 -0.24213143 -1.1886786
-0.69632363 -0.24202456 -1.1887819
-0.68792671 -0.24053001 -1.1883668
-0.71435559 -0.23463355 -1.1861643
-0.70556462 -0.23484834 -1.1850034
-0.69498795 -0.23482096 -1.1856935
-0.68460494 -0.23432969 -1.1873939
-0.67821002 -0.23560999 -1.1892999
-0.72148001 -0.22603001 -1.1849999
-0.71485847 -0.22626694 -1.1821153
-0.70552856 -0.2275307 -1.1812928
-0.69399136 -0.22717135 -1.1818733
-0.68401241 -0.22544734 -1.1835065
-0.67886168 -0.22455001 -1.1866833
-0.72592664 -0.21552001 -1.1874666
-0.71894997 -0.21943 -1.1819
-0.68040138 -0.21447287 -1.1865
-0.67930502 -0.215059 -1.18358
-0.68054372 -0.20418625 -1.1854501
-0.67879206 -0.20522499 -1.1852801
-0.6808117 -0.19540167 -1.1865
-0.67914617 -0.19453308 -1.1857307
-0.68129933 -0.18479285 -1.1852
-0.67878002 -0.18570141 -1.1858143
-0.68124998 -0.17646 -1.184025
-0.67642379 -0.17488798 -1.1858933
-0.68165749 -0.1663 -1.18295
-0.67649174 -0.16621706 -1.1829234
-0.67787004 -0.15395667 -1.1813668
-0.68355 -0.14621 -1.1868
-0.68392998 -0.13752 -1.1842
-0.69173998 -0.11363 -1.1835001
0.40724182 -0.11267272 -1.1879636
0.4144567 -0.11128333 -1.1881777
0.425603 -0.11163 -1.1887801
0.43700001 -0.11157 -1.1879667
0.44005999 -0.11019 -1.1865
-0.69406003 -0.1028 -1.1842999
0.40639207 -0.10465378 -1.1867516
0.41514978 -0.10476108 -1.1855675
0.4250547 -0.10430565 -1.1857167
0.4352946 -0.1041096 -1.1864463
0.44150332 -0.10410666 -1.1876833
0.40507111 -0.095500454 -1.1851703
0.41500062 -0.097108603 -1.1815187
0.42494425 -0.095563479 -1.1814382
0.43550003 -0.09543556 -1.182292
0.44203445 -0.09475711 -1.1837335
0.40439665 -0.085088052 -1.1842573
0.41782001 -0.089510001 -1.1804
0.42506 -0.089575 -1.1813
0.43595999 -0.089497 -1.1802
0.44507504 -0.086965501 -1.1832333
-0.69555002 -0.073435001 -1.1891
-0.68976003 -0.071872003 -1.1833
0.40418589 -0.074785009 -1.185853
0.404194 -0.064832248 -1.1851441
0.40384328 -0.055271808 -1.1857572
0.4039126 -0.045030579 -1.1855578
0.40370181 -0.034721233 -1.1842117
0.40464416 -0.025209917 -1.1857834
0.40558779 -0.015367667 -1.1858335
-0.877855 -0.66325498 -1.1747
-0.80817002 -0.66079998 -1.1709
-0.77807599 -0.66130602 -1.1754801
-0.73654002 -0.66346997 -1.1755667
-0.87866998 -0.65776002 -1.1792001
-0.81071001 -0.65372998 -1.1798
-0.78065002 -0.65280998 -1.1763999
-0.77559286 -0.65485048 -1.1738744
-0.76856804 -0.65346593 -1.17796
-0.74044001 -0.65932 -1.1747
-0.73178667 -0.65573996 -1.1754333
-0.72851998 -0.65265 -1.1701
-0.93028003 -0.64315999 -1.1766
-0.87005001 -0.64736003 -1.175
-0.81077999 -0.64784002 -1.1777
-0.80400002 -0.64809 -1.1781499
-0.79388666 -0.64135665 -1.1758332
-0.77676326 -0.64553779 -1.1754179
-0.73214 -0.64858001 -1.1772001
-0.72358751 -0.64252996 -1.1721501
-0.92448002 -0.63717496 -1.17545
-0.91776001 -0.63138998 -1.1776
-0.79126 -0.63503003 -1.17738
-0.78676003 -0.63491672 -1.1726333
-0.77388048 -0.6346752 -1.1738381
-0.76958001 -0.63204002 -1.1766
-0.72186416 -0.63555914 -1.1727
-0.71939665 -0.63209003 -1.1730667
-0.91171503 -0.62446499 -1.17635
-0.80675 -0.62456 -1.1718
-0.78246617 -0.62386388 -1.1733385
-0.77636695 -0.625929 -1.1746759
-0.7656039 -0.62445277 -1.1747946
-0.75990999 -0.62106001 -1.1795
-0.72242498 -0.62141669 -1.1748333
-0.7183066 -0.62437832 -1.1710167
-0.80778998 -0.61624002 -1.1729
-0.78218633 -0.61545271 -1.1766547
-0.77946997 -0.61591256 -1.177475
-0.76104498 -0.61835754 -1.1763
-0.75325996 -0.61520207 -1.1751
-0.74541903 -0.612679 -1.1752399
-0.73385179 -0.61233729 -1.1737272
-0.72628003 -0.61551207 -1.1743213
-0.89930999 -0.60723001 -1.1799001
-0.80829 -0.60135001 -1.1710501
-0.78232002 -0.60819501 -1.1789501
-0.77900499 -0.60900998 -1.1775
-0.74040002 -0.60948002 -1.1732
-0.73611498 -0.609245 -1.1726999
-0.815 -0.59827 -1.1764001
-0.81186002 -0.58945 -1.1734
-0.81331998 -0.57928997 -1.1709
-0.85890001 -0.56010002 -1.1704
-0.81681502 -0.56507003 -1.1715
-0.85890001 -0.55895001 -1.1709
-0.83069998 -0.55299002 -1.1794
-0.85119998 -0.54668999 -1.1783
-0.84727502 -0.54660499 -1.1765499
-0.83955997 -0.54047 -1.1711
-0.82582498 -0.54049498 -1.17425
-0.83045 -0.53249002 -1.1786
-0.82235003 -0.53447247 -1.175825
-0.82749498 -0.52763498 -1.1756999
-0.82427001 -0.51858002 -1.17415
-0.81745499 -0.49737999 -1.17645
-0.80432999 -0.49136001 -1.1706001
-0.80397338 -0.48384333 -1.1731333
-0.80129999 -0.47589999 -1.1765
-0.79656333 -0.47569335 -1.1746666
-0.792404 -0.46526399 -1.1747801
-0.78847331 -0.46335664 -1.1765666
-0.78377497 -0.45660785 -1.1769142
-0.77956003 -0.45398 -1.1756001
-0.78151 -0.44983 -1.1759
-0.77537 -0.44392198 -1.17488
-0.76942998 -0.44167 -1.1718
-0.71267855 -0.22261144 -1.1777714
-0.70438665 -0.22268534 -1.1782668
-0.69550997 -0.22287948 -1.1789684
-0.68458116 -0.22348002 -1.179089
-0.72112 -0.21385001 -1.1781
-0.71363389 -0.21541888 -1.1753112
-0.70496875 -0.21471286 -1.1739745
-0.69514549 -0.21454969 -1.1749321
-0.68469417 -0.21503112 -1.1759614
-0.67868495 -0.21534748 -1.1772749
-0.72081 -0.20320499 -1.17305
-0.71578747 -0.20707126 -1.1717376
-0.70430994 -0.207885 -1.17136
-0.69495934 -0.20729356 -1.1715287
-0.68470293 -0.20653768 -1.1724708
-0.67900479 -0.20452634 -1.1742842
-0.72303998 -0.19815999 -1.1714
-0.68041998 -0.19486333 -1.1785334
-0.67907006 -0.19519466 -1.1751133
-0.68055797 -0.18535 -1.1768
-0.67890561 -0.18496111 -1.1729889
-0.68112165 -0.174675 -1.1756834
-0.67880923 -0.17439857 -1.1750429
-0.68132716 -0.16470215 -1.1754285
-0.67712903 -0.163381 -1.17817
-0.68110198 -0.15453298 -1.17401
-0.67764229 -0.15564273 -1.1755317
-0.68037999 -0.14796001 -1.1723
-0.67775691 -0.14563563 -1.1737374
-0.6783725 -0.13672751 -1.172175
-0.68233001 -0.12854999 -1.1781
-0.68351001 -0.11383 -1.1731
-0.68432999 -0.10645 -1.1711
-0.68563998 -0.095785998 -1.1701
0.40685913 -0.092851914 -1.17845
0.41456285 -0.093208186 -1.1785476
0.42541614 -0.092968151 -1.1785768
0.43277666 -0.093493998 -1.1789333
-0.69273001 -0.087898999 -1.1747
0.40650037 -0.084455207 -1.1754034
0.41487002 -0.0848644 -1.1744874
0.42459205 -0.085122868 -1.1746733
0.43448088 -0.084632955 -1.1752583
0.442 -0.08261966 -1.1768833
-0.68826669 -0.07633467 -1.1719333
-0.67646003 -0.072401002 -1.1723
0.40542832 -0.075640671 -1.17474
0.415003 -0.076889694 -1.1715765
0.42457873 -0.077209622 -1.1718751
0.43516409 -0.077190779 -1.1728728
0.44283998 -0.074880131 -1.1740249
0.40494168 -0.065711275 -1.174539
0.42778 -0.068745002 -1.1701
0.44451001 -0.069966003 -1.1715
0.40447089 -0.054855362 -1.1752908
0.44904 -0.059558999 -1.1719
0.40403327 -0.045904595 -1.1755534
0.40417096 -0.035145685 -1.1756318
0.45491001 -0.038244002 -1.1708
0.40374422 -0.025360312 -1.1752946
0.39906999 -0.01148 -1.1729
0.40401897 -0.014838052 -1.1740901
0.40186399 -0.0067121596 -1.17134
-0.88048339 -0.66876334 -1.1638666
-0.87691897 -0.66810596 -1.1623349
-0.81391168 -0.66793162 -1.1651666
-0.80923998 -0.66354001 -1.166
-0.78377175 -0.66551328 -1.1643777
-0.77868003 -0.66060001 -1.1681
-0.75110143 -0.66948712 -1.1627214
-0.74547637 -0.66792244 -1.1625195
-0.73753279 -0.66234225 -1.1637999
-0.93180001 -0.65095001 -1.1697
-0.87178504 -0.65395498 -1.16395
-0.86943001 -0.65517998 -1.16425
-0.80270666 -0.65246338 -1.1686333
-0.79693002 -0.65051001 -1.1603
-0.78644091 -0.65200907 -1.1632454
-0.77769488 -0.65502924 -1.1659079
-0.73297769 -0.65605265 -1.1638498
-0.72783494 -0.65251082 -1.1652583
-0.92618001 -0.64494002 -1.16635
-0.86599499 -0.64951003 -1.1666501
-0.80155003 -0.64376998 -1.1675999
-0.79245663 -0.64504552 -1.1643001
-0.78636426 -0.64409822 -1.1631787
-0.77688533 -0.64490539 -1.1651539
-0.73014998 -0.64982003 -1.1694
-0.72452229 -0.64524472 -1.1668413
-0.92172003 -0.63932502 -1.16465
-0.91530001 -0.63467997 -1.1667
-0.80005002 -0.63024002 -1.1667
-0.79643327 -0.63616335 -1.1654667
-0.78380388 -0.63641697 -1.1660695
-0.7762844 -0.63507456 -1.1650577
-0.7219525 -0.63806248 -1.168175
-0.71854246 -0.63402247 -1.167275
-0.90836668 -0.62567329 -1.1618333
-0.78053999 -0.62712997 -1.1682
-0.7772457 -0.62706143 -1.1679857
-0.721295 -0.62514997 -1.16945
-0.71876502 -0.62623 -1.16915
-0.80148 -0.61215752 -1.164525
-0.72139502 -0.61978 -1.1697
-0.80403745 -0.60360497 -1.165925
-0.88123 -0.58880001 -1.1691
-0.81123 -0.5837 -1.1648999
-0.80711001 -0.58155 -1.1635
-0.87528998 -0.57849997 -1.1693
-0.81010002 -0.57146001 -1.1639
-0.80756003 -0.573955 -1.1631
-0.80800003 -0.56655997 -1.1625
-0.86092001 -0.55953002 -1.1691999
-0.8154 -0.55682999 -1.16795
-0.84731668 -0.54838997 -1.1644666
-0.81787997 -0.53850001 -1.1638
-0.81932998 -0.52710998 -1.1667
-0.82437998 -0.51744002 -1.17
-0.81473744 -0.50501502 -1.1637501
-0.80719 -0.50024998 -1.1623
-0.81135005 -0.49457335 -1.1640333
-0.80499339 -0.49421167 -1.1642667
-0.80129623 -0.48538625 -1.1649375
-0.79911286 -0.48328286 -1.1636571
-0.80131996 -0.47825998 -1.16855
-0.79582334 -0.47491667 -1.1674334
-0.71272999 -0.20389231 -1.1683615
-0.70452607 -0.20353499 -1.1675951
-0.69449461 -0.20276666 -1.1677934
-0.68520492 -0.20290437 -1.1686562
-0.72107667 -0.19144666 -1.1678001
-0.71399087 -0.19497524 -1.1645143
-0.70597893 -0.19598371 -1.1643595
-0.69493824 -0.19507721 -1.1639777
-0.68443537 -0.19530722 -1.1650832
-0.67900002 -0.193591 -1.1674099
-0.72152001 -0.185275 -1.1626501
-0.71537668 -0.18739666 -1.1609
-0.70095003 -0.18735999 -1.1605
-0.6949771 -0.18765858 -1.1614571
-0.68424124 -0.1856384 -1.1623418
-0.67843175 -0.1843172 -1.1647778
-0.72565496 -0.17471001 -1.1629
-0.68085998 -0.17389286 -1.1634572
-0.67879087 -0.17546572 -1.1652857
-0.72888005 -0.16643 -1.1633
-0.68066442 -0.16438222 -1.1648778
-0.67935002 -0.16679201 -1.1666
-0.68124199 -0.154814 -1.1644
-0.67923921 -0.15567334 -1.164975
-0.68115073 -0.14413071 -1.166507
-0.67865813 -0.14523546 -1.1675819
-0.68111223 -0.13610445 -1.1641444
-0.67789787 -0.13455315 -1.1658368
-0.68126392 -0.127606 -1.16352
-0.67857355 -0.12489413 -1.1644884
-0.68146664 -0.11756334 -1.1635333
-0.67930138 -0.11578285 -1.1624857
-0.68167001 -0.10441 -1.1624
-0.68293333 -0.096778333 -1.1638333
-0.68412 -0.077834003 -1.1645666
0.40714335 -0.07313434 -1.1681832
0.41494748 -0.073279321 -1.1686188
0.42427203 -0.07340011 -1.1684999
0.43392661 -0.072221167 -1.1678333
0.44038999 -0.073307 -1.1677999
-0.76779997 -0.067355998 -1.1651
0.40643734 -0.064360134 -1.1649934
0.41470858 -0.065350026 -1.1635334
0.42479452 -0.06484919 -1.1649139
0.43472001 -0.065167747 -1.1656615
0.44232601 -0.064548403 -1.16763
-0.68118 -0.059190001 -1.1647
0.40564176 -0.055411004 -1.1642678
0.41487858 -0.053345434 -1.1605715
0.42490554 -0.056087214 -1.161411
0.43533403 -0.057245098 -1.1611699
0.44326746 -0.055983502 -1.1649624
0.4040086 -0.04489395 -1.1650476
0.44496861 -0.046682145 -1.1617143
0.40428883 -0.035797998 -1.1651236
0.44699001 -0.036726002 -1.1604
0.40399826 -0.024605 -1.16435
0.40422413 -0.015187272 -1.1639409
0.39913499 -0.0066212998 -1.1684
0.40350822 -0.0067748888 -1.1645941
0.46599001 0.01423 -1.1619
-0.87226343 -0.66474307 -1.1545218
-0.86828637 -0.66287184 -1.1521728
-0.81118125 -0.6664688 -1.1570874
-0.80621403 -0.66423672 -1.1536349
-0.79542506 -0.66251248 -1.1508937
-0.78256184 -0.66512817 -1.1556
-0.77921999 -0.6627875 -1.15125
-0.75190002 -0.6689766 -1.1589667
-0.74641359 -0.66783845 -1.1591702
-0.73640001 -0.66003001 -1.1598001
-0.86639333 -0.65591997 -1.1558667
-0.80117929 -0.65798855 -1.1542571
-0.79588717 -0.65590405 -1.1526841
-0.78403586 -0.65400201 -1.1541046
-0.7771787 -0.65414757 -1.153188
-0.79175663 -0.64423496 -1.1564666
-0.7850979 -0.64553291 -1.1558645
-0.77628863 -0.64528722 -1.156431
-0.91646504 -0.63344002 -1.1568
-0.79365999 -0.63585997 -1.15675
-0.78710335 -0.63607001 -1.1528333
-0.91110998 -0.62537998 -1.1599
-0.79303503 -0.62347752 -1.1542751
-0.78916335 -0.62663001 -1.1513333
-0.79596329 -0.61361998 -1.1572666
-0.78957498 -0.61189997 -1.15125
-0.79850501 -0.60585999 -1.1582999
-0.88450998 -0.59636003 -1.156
-0.80254 -0.59428501 -1.1589
-0.79872501 -0.59798002 -1.15765
-0.79600668 -0.58875662 -1.1530666
-0.80360335 -0.57639003 -1.1580334
-0.802535 -0.56591499 -1.15545
-0.79917997 -0.56733501 -1.15115
-0.8459 -0.55118001 -1.1576
-0.80549669 -0.55540001 -1.1535
-0.80682999 -0.54693252 -1.153775
-0.80664003 -0.53961003 -1.1508501
-0.81301999 -0.52203 -1.1564666
-0.80985999 -0.52158999 -1.1575
-0.81445754 -0.51475495 -1.1554501
-0.80896002 -0.51284999 -1.1504
-0.81262004 -0.50462496 -1.15795
-0.80643004 -0.50144804 -1.15486
-0.80411404 -0.49494401 -1.1555535
-0.80173999 -0.48738402 -1.15844
-0.79882997 -0.48877001 -1.1575
-0.70198339 -0.19077332 -1.1589333
-0.69814003 -0.19065 -1.1593
-0.71398687 -0.18341376 -1.1579562
-0.70504266 -0.18444756 -1.1576424
-0.69517761 -0.18328241 -1.1572952
-0.68707544 -0.18274635 -1.1580001
-0.72343004 -0.17278999 -1.15745
-0.71414918 -0.17531501 -1.1545819
-0.70492429 -0.17501785 -1.1529429
-0.69505149 -0.17498915 -1.154
-0.6842441 -0.17475221 -1.1554489
-0.67940664 -0.17429 -1.1583667
-0.72353667 -0.16588001 -1.1552334
-0.71785998 -0.16998 -1.1506
-0.70326573 -0.16873144 -1.1507571
-0.69394398 -0.16797599 -1.15052
-0.68339884 -0.16585176 -1.1528234
-0.67866337 -0.16502266 -1.1541734
-0.72812003 -0.15096 -1.15405
-0.68051666 -0.15597333 -1.1545333
-0.6788438 -0.15490875 -1.1548625
-0.73260665 -0.14447333 -1.1568333
-0.72832 -0.14587 -1.151
-0.68100005 -0.14417599 -1.1552401
-0.67886722 -0.14506428 -1.1551143
-0.68105245 -0.1354925 -1.1554625
-0.67898732 -0.13442272 -1.154909
-0.68110776 -0.12526111 -1.1556113
-0.6793077 -0.12483922 -1.1561692
-0.68112379 -0.11461769 -1.1546617
-0.67865175 -0.11563455 -1.1559817
-0.68134999 -0.10603166 -1.1519834
-0.67916846 -0.10544738 -1.1552262
-0.68167001 -0.093310997 -1.1580999
-0.67910695 -0.096248306 -1.1519301
-0.68234664 -0.083794676 -1.1555333
-0.679515 -0.082198501 -1.1521001
-0.76108998 -0.075024001 -1.1583
-0.68203002 -0.079369999 -1.1526
-0.67609406 -0.073035002 -1.15248
-0.76134998 -0.060741 -1.1518
-0.68289 -0.069087997 -1.1568
-0.66197002 -0.060715001 -1.1513
0.40748 -0.06079933 -1.1598333
0.41229999 -0.060619 -1.15985
-0.68175501 -0.054769501 -1.15765
-0.66764998 -0.059943002 -1.1573
0.40729502 -0.053156834 -1.1579418
0.41460738 -0.055300768 -1.1585424
0.42506686 -0.053572677 -1.1575409
0.43492189 -0.05361791 -1.1583668
0.44314998 -0.051995501 -1.1589501
-0.67862999 -0.0494265 -1.1544499
0.40617403 -0.044748884 -1.1561333
0.41474313 -0.045327339 -1.1541967
0.42497495 -0.045078196 -1.15525
0.43470502 -0.044893313 -1.1553626
0.44143 -0.043596003 -1.1557714
0.40473285 -0.03476081 -1.1540806
0.41544399 -0.037156999 -1.1516101
0.42342997 -0.037533458 -1.1518462
0.43488529 -0.036489293 -1.1521353
0.44284669 -0.035174999 -1.15335
0.40463194 -0.025792152 -1.1550601
0.44606799 -0.026610801 -1.1529601
0.45054001 -0.022723 -1.1588
0.40479872 -0.015211499 -1.1554124
0.44994 -0.018234 -1.1535
0.34319001 -0.0042507998 -1.1545
0.39555332 -0.0030781999 -1.1520333
0.40440273 -0.0061627179 -1.1554272
0.45842999 0.0072321999 -1.1524
0.45795 0.015786 -1.1515
-0.87184 -0.66238499 -1.1487499
