# .PCD v0.7 - Point Cloud Data file format
VERSION 0.7
FIELDS x y z rgb
SIZE 4 4 4 4
TYPE F F F U
COUNT 1 1 1 1
WIDTH 397
HEIGHT 1
VIEWPOINT 0 0 0 1 0 0 0
POINTS 397
DATA ascii
0.54215997 11.349 4.0748997 4286761073
-0.17447001 11.424999 4.1273003 4291369528
-1.0661 11.338 4.0915999 4290071655
2.6422 11.499001 3.2623 4293774349
2.4545002 12.284 2.4254999 4292663626
3.4136999 11.316 2.507 4288139309
2.8860002 11.773 2.7037001 4286416386
2.675 12.234 1.7605 4281861891
3.5750003 11.23 1.9109 4278458849
1.5982 12.307 3.1279001 4291047519
0.79813004 12.438 3.2797999 4280003566
1.8101 11.674001 3.5493002 4282092807
0.86687005 11.757999 3.7537999 4286076334
1.808 12.535999 2.6131999 4286982232
0.80861002 12.865999 2.619 4290198767
2.2749999 12.146 2.9671001 4280772650
-0.18689001 12.455999 3.3183999 4292397689
-1.1168001 12.376 3.2519002 4292338297
-0.20063001 11.937 3.8104002 4286314422
-1.232 11.816 3.7427001 4294532895
-0.16659001 12.879001 2.6782 4291040329
-1.1970999 12.723001 2.6218998 4283924059
1.6483999 12.828 1.928 4280366206
0.70921004 13.103 1.8415 4293407781
0.14614999 13.134 1.7095 4294474619
-1.3821 12.886 1.9265 4288315506
-1.7249999 11.202 4.0077 4284899534
-7.4556003 13.415 5.1046 4293332809
-6.5971003 14.396 4.1090002 4281149932
-7.1925001 14.545 4.3266001 4282666834
-6.5509996 13.624001 4.2195001 4285039616
-7.1111999 13.766999 4.7518001 4280535531
-7.9527998 13.415999 5.1194 4278248478
-8.0421 14.428 4.2792997 4280252714
-8.2672005 13.78 4.6806002 4290136064
-8.8129997 13.514 4.2221999 4278527489
-6.6325002 12.347 5.0728998 4288814786
-7.2398996 12.662 5.2364001 4289301622
-6.6091003 11.973001 5.0881 4282002874
-7.2012 11.811 5.2294998 4285098965
-6.2433 12.627 4.3831 4290005100
-6.8325996 12.998 4.8874998 4294619745
-6.3093996 11.811 4.4398999 4292828245
-7.1300998 11.322 4.8409996 4279535485
-8.0514994 12.740999 5.2034001 4288187895
-7.8179002 11.91 5.1115999 4279003530
-8.5215998 12.609 4.9001002 4286406292
-8.9538002 12.621 4.4589 4278522052
-8.2658997 11.661 4.7969999 4280991393
-8.9535999 11.784 4.4569998 4280826892
-5.6500001 15.248001 3.0132 4292268697
-5.5517001 15.313 2.6915002 4278235523
-3.625 17.198 0.017688001 4286154013
-3.7749999 17.198 0.022189001 4283654599
-3.625 16.934999 0.051957998 4285671579
-3.3176 15.711 0.18682 4293496855
-5.1912999 15.449999 1.1273 4294690735
-4.1707001 16.642 0.30522001 4288643890
-4.9467998 16.414 0.41987997 4294094956
-4.1891999 15.669001 0.54879004 4279447299
-5.1224003 15.877999 0.80282998 4288869348
-6.2417002 15.317 3.3160999 4293378300
-7.1670003 15.319 3.3700998 4278667159
-6.2542996 15.524 2.7405 4290959326
-7.2109995 15.549999 2.7644999 4292615271
-7.8663001 15.268999 3.2268 4278592170
-8.1569004 15.374001 2.6085 4286739998
-8.7250004 15.23 2.2135 4290903691
-5.7249999 15.568 1.0325 4288548696
-5.7888002 15.75 0.73224998 4288814806
-8.8500004 15.223 1.9215001 4280432485
-5.6129003 14.616001 3.085 4282485105
-5.4705 13.555 3.2127001 4282344159
-5.4144001 14.714 2.6275001 4281874636
-4.6624999 13.234 2.1909001 4287066235
-5.1389999 13.694 2.5787001 4279745415
-1.8278 12.238 3.0773001 4284556139
-2.1655998 11.643 3.5209 4290118335
-3.1921 11.566 3.2851 4287687173
-2.1348 12.421 2.4561999 4281804392
-3.2409999 12.349 2.3292999 4290562637
-2.4869001 12.094 2.8745 4291930984
-3.1746998 12.039 2.8229001 4283817857
-5.2912002 12.685999 3.4967999 4280003002
-4.1672001 11.564 3.2997999 4285868477
-5.2037001 11.68 3.4582 4287441795
-4.2495003 12.488 2.4082 4282181686
-4.7946 12.736 2.8108001 4288457540
-4.2420998 12.035 2.8633001 4292789033
-4.7660999 12.024 2.8871 4285995278
-3.5964 15.13 0.053949997 4287769040
-5.0598001 14.740001 1.3881 4286748969
-4.6374998 13.292999 1.8289 4285672300
-4.9124999 13.856 1.6269001 4287024753
-4.2975998 14.915 0.54003 4294737817
-4.7965002 14.658999 0.86783004 4284291729
-2.2926002 12.630001 1.8076999 4292176845
-3.1582999 12.59 1.7804 4289880233
-4.1733003 12.796 1.6650001 4290449726
-6.1482 14.698 3.6168001 4280383892
-7.1728997 15.026 3.8327999 4291805960
-6.0525999 13.68 3.5999 4286967419
-8.2618999 14.823 3.5955 4292313473
-8.7824001 14.449 3.3778999 4281939983
-8.9000006 13.828 3.7774 4281280217
-8.5662003 15.095 2.8208001 4284734508
-8.9601002 14.724999 2.5869 4285285809
-9.0681 13.748 2.369 4281549795
-5.8722 12.924001 3.8992 4287752750
-6.0075002 11.512 3.7684999 4289310547
-9.1812 12.767 3.8702998 4292560444
-9.1726999 11.657001 3.9618998 4281790542
-9.3163996 12.721001 2.5211 4280179551
-9.3937998 12.066999 2.4398999 4288090921
-9.1582994 14.521999 1.9859999 4284134005
-9.0929003 13.667 1.9817001 4286548861
-9.3093996 11.635 1.8959 4283185564
2.4948001 10.286 4.1417999 4291985423
3.3599999 9.2627001 4.0462999 4280166055
2.7419999 9.6386003 4.3311996 4288417503
3.3920002 8.6911001 4.1034002 4281029619
2.8155999 8.6837006 4.5084 4288108298
3.381 7.8603997 4.0854001 4284071654
2.8125 7.6874003 4.5058999 4284501444
1.4499999 9.3278999 5.0879998 4284128094
0.74816996 9.4729996 5.2315001 4286944340
1.7407 10.535 4.3139 4282774971
0.79536003 10.633 4.2968001 4291433665
1.8511 9.7194004 4.7253003 4289656051
0.86436003 9.9322996 4.8079 4282318087
-0.20197 9.5697994 5.3906002 4283712794
-1.1446 9.5169001 5.3862 4282908105
-0.1875 10.691 4.3455 4279769929
-1.1875 10.688 4.3018999 4288760523
-0.17622 10.071 4.6648002 4284299321
-1.2498 10.007999 4.5915999 4281408440
1.6380999 8.5894003 5.1641998 4293587022
0.81166995 8.691 5.5228 4281047331
1.7643999 7.6954999 5.2372003 4289032206
0.8125 7.6852999 5.5535998 4283587380
2.0574999 8.8169003 4.9006 4280865566
2.2445002 7.5721002 4.9563003 4283326848
-0.17931001 8.6848993 5.6842999 4289314872
-1.1943001 8.6770992 5.7009001 4283893568
-0.19567001 7.6862998 5.7803001 4282535009
-1.1875 7.6963997 5.7021999 4290882558
3.325 6.7541003 4.0033002 4292627480
2.8148999 6.6829004 4.2953 4287898640
2.6761 5.7828999 4.2588 4290015097
2.3571 4.7460003 4.0427999 4285297239
1.5832 6.7418003 5.1639004 4280696961
0.80431002 6.6901999 5.5006003 4281552606
1.3984001 5.8885999 5.0416002 4282093281
0.80973005 5.6887999 5.2950001 4294458530
2.0565999 6.5957999 4.8300004 4291306552
1.8594 5.6539001 4.7879 4279066268
1.2875 5.2652001 4.9688997 4279351782
-0.17851999 6.6711998 5.6503 4281186791
-1.1784999 6.6885004 5.5015001 4292268427
-0.1875 5.6597004 5.441 4291078017
-1.184 5.7054 5.2714 4291043703
-1.5688 5.2469001 4.9615002 4286789072
0.66153997 4.993 5.1258998 4293100052
1.8088 4.6654997 4.3320999 4281153551
0.88409996 4.5437002 4.6623001 4290567586
1.7688 3.9719 4.3084002 4280545346
0.8125 3.9515998 4.5373998 4290287537
-0.16111 4.9844003 5.1719999 4282426330
-1.245 4.6773 5.0903001 4280625155
-1.3851 3.9778001 5.1036 4281966723
-0.20294 4.4874001 4.7586999 4294725643
-1.1653 4.6859999 4.8661003 4293263082
-0.18610999 3.9606001 4.7339001 4283826191
-0.91545004 3.9579999 4.9415002 4294403280
4.3660998 9.4028006 2.2520001 4286212771
3.4642 10.473001 3.1831 4285551512
2.8343 10.719999 3.6338999 4285565625
3.6338999 9.6552 3.4843001 4290014977
3.1732998 9.9371996 3.8504999 4285200146
3.6998 10.668 2.6781001 4290656173
3.2875001 11.108 2.9589999 4289053231
4.0938001 9.7131996 2.6663001 4288558050
4.4152999 8.6465998 2.4240999 4290276637
5.375 7.2221003 2.0429001 4287669487
4.5159998 7.6573997 2.3594 4281087038
3.8036001 8.6662998 3.5459001 4289051578
3.7861001 7.6624999 3.5657997 4294602365
4.2216001 8.7236996 2.8254001 4291414215
4.2355003 7.6746998 2.858 4293589193
4.3875003 9.6228008 1.5269001 4283476207
4.4375 9.6796999 0.86444998 4293649241
3.9545 10.61 1.7655001 4293295573
4.2312999 10.009 1.7237 4285526479
4.5405998 8.7417002 1.5604 4288229120
5.5117998 7.2639003 1.7944001 4288909037
4.8722 7.3760004 1.7433999 4282710800
4.5917001 8.6297998 0.94211 4285827103
1.9432999 10.96 3.9062998 4289580572
1.097 11.058 3.9648001 4280816766
4.6657 5.7153001 3.1337001 4281670574
5.6079001 6.6335001 2.4122 4280781140
4.8168001 6.7010002 2.6297998 4284264186
5.6054997 5.7252998 2.4901998 4284434956
5.1163001 5.6662002 2.9137001 4289481234
3.6913998 6.7032003 3.6122003 4287024996
3.3 6.4719996 3.9902999 4288767848
3.8004 5.6507001 3.3119001 4287226450
3.0629001 5.4914999 3.8483999 4280094887
4.1875 6.6382995 2.8357 4287147610
4.1434002 6.0880003 2.9632001 4282188192
4.4920998 4.9903998 3.1243 4279978472
5.4635 5.0167003 2.2043998 4294750753
4.8280001 4.737 2.5845001 4279725433
3.7973001 4.8347001 3.1456001 4278286755
2.8053 4.7061 3.5990999 4288152230
2.5595 4.0346003 3.415 4289029269
3.8454998 4.3508997 2.8278 4291120256
3.2031 4.3278003 2.9253001 4279142153
3.6580999 4.0334997 2.5144 4293192878
3.0190001 3.9321001 2.6847 4281941445
5.9333 6.7891002 1.7361 4284223350
4.6500001 7.1451998 1.9710001 4291505745
5.9562001 5.7746997 1.8340001 4290572723
5.5636001 4.9198999 1.9173 4280915643
5.0500002 4.5063996 1.9181 4278402621
2.3 4.7803001 3.9776001 4282382407
2.2388999 3.8860002 3.8795002 4288865005
-1.9545 9.3900003 5.2205 4291009060
-2.1462002 10.618 4.2059002 4291268654
-3.1027 10.395 4.1227999 4291294247
-2.2521 9.7722998 4.5194001 4282868312
-3.1858001 9.7025995 4.3878002 4292852439
-4.3262 10.412 4.0890999 4287538309
-5.2154002 10.403999 4.0972004 4294586300
-4.1875 9.6943998 4.2424002 4281733432
-5.1918998 9.6967001 4.3562999 4279897039
-2.1489 8.6672001 5.4767003 4284171687
-2.7 8.3086996 5.0283999 4281202182
-2.1069999 7.7248998 5.4365001 4292490916
-2.6011 8.9633999 4.8980999 4286368934
-3.1893001 8.7034998 4.4169002 4290049517
-2.5625 7.4892001 4.7101998 4288434744
-3.1970003 7.6899996 4.2177 4283990799
-4.1824002 8.6954002 4.3295002 4289386003
-5.1825004 8.6843996 4.4933 4281214316
-4.1917996 7.6728001 4.2564001 4283233094
-5.1848998 7.6876998 4.2992001 4287655362
-6.1338997 10.393 4.1163998 4289363932
-7.2672 10.976 4.4294 4278853885
-6.1784 9.6825008 4.3326998 4284301691
-7.0058002 9.6203003 4.1396999 4284473466
-8.0439005 11.091 4.4342999 4281584676
-6.1926999 8.6723995 4.4520001 4279391527
-7.0344 8.7351999 4.1908002 4279289959
-6.1409998 7.7489004 4.2178001 4288349063
-6.8579001 8.0144005 4.1023998 4291857460
-1.9045001 6.7732 5.2388 4283153330
-1.7742001 5.8908997 5.0809002 4280141906
-2.3548 6.6381998 4.5226002 4288550101
-3.3989999 6.7795 4.0929003 4279096293
-2.1689999 5.6549001 4.5163999 4287788960
-3.6111002 6.0706 4.0407 4287592709
-4.1230998 6.6950998 4.1391997 4281685029
-4.8587999 7.0956001 4.0357003 4288180043
-4.0300002 5.9464998 4.0446 4289956965
-2.1919999 4.4965 5.2258 4285008018
-2.9187 4.3585 5.1087999 4290528514
-2.1919 3.9825997 5.3520999 4289720931
-3.0331001 3.9749 5.2133002 4294868069
-2.1998 4.9846997 4.6725001 4288122145
-3.1911001 4.6848001 4.5187001 4294120820
-3.5276 3.9753001 4.7529001 4292683952
-4.2016001 4.4822998 4.1594 4287078367
-5.1940002 4.4707003 4.3497996 4279277722
-4.1928 3.9326999 4.3582001 4280125839
-5.1856999 3.9252002 4.6212001 4285128078
-5.9453001 4.4240003 4.2862 4289962385
-6.0764999 3.9087002 4.4362998 4282819860
-2.4273 11.038 3.9129 4292546233
-3.2379003 10.877999 3.7951999 4282310085
-4.1152 10.853 3.7969 4293920162
-5.1697998 10.906 3.8258002 4284477881
-6.2091002 10.877 3.8274002 4294301231
-7.1654997 10.596 3.7516003 4290245423
-7.4633999 9.7746 3.8346999 4280986710
-7.9120002 10.508 3.2308002 4279809752
-8.0202999 9.6758003 3.3592 4290123196
-8.3780003 10.568 2.5985 4278224319
-8.7292004 10.313999 2.0825 4294869494
-8.5209999 9.7079 2.7809999 4283470282
-8.8081999 9.6456003 2.2985001 4287885118
-7.5159998 8.6040001 3.8816001 4294812915
-6.4576998 7.3455 3.8970001 4281472366
-7.2279 7.6416001 3.6413 4294140398
-7.6374998 7.2563 2.8729999 4279031677
-8.0031004 8.7075996 3.4290001 4278875258
-7.8919001 7.9370999 3.2477 4282883127
-8.4834003 8.6686001 2.6974001 4283594464
-8.7890997 8.9233007 2.2611001 4280703261
-8.1047993 7.7168999 2.5829 4290517021
-8.6392994 10.784 1.8634999 4290319707
-8.7672005 10.492 1.7263999 4285017681
-8.9333 9.8483 1.761 4284858885
-8.6374998 8.3066998 1.8607 4288288688
-8.9179001 8.9186001 1.8946999 4294521297
-8.2879 7.6108999 1.7794 4278243942
-8.25 7.4674001 0.71175003 4280270789
-2.6436999 6.4140997 3.9321001 4278694221
-3.0035 6.6129999 3.8942001 4286470174
-2.6131001 5.6531 3.8881998 4284680771
-3.1664 5.6657 3.7742 4291578678
-4.5716 6.4540997 3.9166 4291029116
-5.1959 6.6868997 3.6733003 4279387417
-4.2557001 5.5544996 3.9026 4287608391
-4.9405999 5.6891999 3.4343998 4283060503
-5.5500002 6.2391 2.9498 4280955914
-5.375 5.8573999 2.6313 4286081937
-3.4060001 5.0137 3.8577001 4290964795
-4.1740999 4.9590001 3.9289999 4291138225
-5.0974998 4.9435 3.6965001 4282524493
-5.2999997 5.1065001 2.9208999 4282185533
-5.4145002 5.4568 1.2257 4286643572
-5.5847998 5.4170003 0.83271998 4293329174
-5.4843998 4.9295001 1.1462001 4287649111
-5.6150002 5.0618997 0.92928994 4278581377
-6.1451001 6.8256998 3.5376 4285724426
-6.9724998 6.9958 3.2788 4280783613
-6.2823 6.3322001 2.6885998 4288825708
-7.1037002 6.6786995 2.5228 4284407646
-6.0857 6.0567999 2.2642999 4293476479
-6.7000003 6.1557999 2.0109 4280344052
-7.8199997 7.1278996 2.1032 4293110337
-6.2116003 4.5145001 3.7802 4278631872
-6.5472999 3.9512999 3.7964001 4287978333
-6.7249999 3.7420001 3.3413 4284571454
-7.2701998 6.5008001 1.8701 4288542573
-6.145 5.9165001 1.8731 4289155739
-6.7500005 6.1478996 1.9221001 4294223304
-5.7410998 5.4113998 0.38257 4292782465
-7.9222002 7.0653996 1.7735001 4282231604
-6.2473001 4.4679999 1.1110001 4279193858
-6.7249999 4.2258 1.0414 4282399770
-6.6389003 4.0514998 1.316 4290301099
-6.8359003 3.8501999 1.1958001 4291647204
-6.1381001 4.7479997 0.76069999 4287522510
-6.8558998 4.3549004 0.81575996 4280400793
-7.0928998 3.9829998 0.85888004 4285361270
-1.6625 18.375 -1.9734999 4279470665
-1.5197999 17.471001 -1.8867999 4283912899
-1.5944 16.264 -0.91036993 4285245792
-1.5977001 16.07 -0.88072002 4287810975
-1.3251001 16.708 -1.5264 4282303159
-1.4291999 16.098 -1.1252 4285995809
-1.3986 18.4 -2.3739002 4286662663
-1.1633 17.698999 -2.3348999 4291016109
-0.91028994 16.988001 -2.1457 4291975574
-2.5562 18.273001 -0.96247 4281911417
-2.7249999 18.254 -0.94384003 4293364599
-2.5736001 17.948 -0.89653003 4285783082
-3.1215999 17.589001 -0.51154 4287491195
-2.0399001 18.449999 -1.4943 4293215291
-2.1338999 17.645 -1.4566 4293502349
-2.7124999 17.234001 -1.0156 4283243578
-3.9390001 17.33 -0.23574999 4289075143
-2.2876 16.406 -0.78103 4284730484
-3.1596999 16.651001 -0.49291998 4285517929
-2.26 15.912 -0.37990001 4284138990
-3.0372 15.767 -0.12672 4285214314
-2.1158001 16.848999 -1.2383 4286417231
-2.7 17.120001 -1.022 4282104991
-4.1719003 16.813 -0.074957997 4287285237
-4.8250003 16.748001 -0.015191 4284460090
-3.7250001 16.146999 -0.0072627999 4284931774
-6.6428995 15.783 -0.85672998 4282322970
-7.1284003 15.839 -0.59979999 4292900483
-6.5978994 16.288 -1.7792 4281537075
-7.1622996 16.383999 -1.5760001 4288035415
-6.6068001 16.051001 -1.3566999 4286709875
-7.3306999 16.049 -1.1832 4294336580
-7.6999998 16.203999 -1.9240999 4284387568
-7.7178998 15.851 -1.495 4285825833
-7.3691001 17.285999 -3.7944 4293175318
-7.7550001 17.220999 -3.9175 4291043022
-6.5921001 16.586 -2.5022001 4279223955
-7.2094998 16.784 -2.4724998 4294713923
-6.5999999 16.808001 -3.0915999 4287716018
-7.3448 17.050999 -3.2045 4294178396
-7.7770004 16.434 -2.5938001 4286226553
-7.7892995 16.039 -2.1299 4285534413
-7.8211002 16.9 -3.4566 4286174345
-3.4667001 15.131 -0.071029 4292943193
-6.6117005 17.353001 -4.7453003 4285243750
-7.1985998 17.612 -4.5384002 4282694146
-6.9250002 18.199999 -5.5025997 4284762587
-6.4992003 17.802 -5.4645 4279620179
-6.9935002 17.983 -5.1987996 4293475524
-7.7930002 17.516001 -4.4400001 4285178439
